# 3D point list with one line of data per point:
#   POINT3D_ID, X, Y, Z, R, G, B, ERROR, TRACK[] as (IMAGE_ID, POINT2D_IDX)
# Number of points: 249, mean track length: 8.4619147449336136
6514 5.8063860202974507 7.5231115919129996 11.687803607388746 218 215 206 0.48246649311777762 6 4072 7 1895 8 1985 9 3138 10 2070 11 5253 12 6373 14 2324 15 5149 16 2187 17 2647 19 3489 3 4335 1 2676 2 2078 18 7033 5 6034 21 7894 13 6941 4 6152 20 5906
6518 5.487423749427732 7.5177847528825916 11.579972298016076 163 160 153 0.73640824603809474 6 4085 7 2220 9 3144 10 2423 11 5655 15 5619 17 2966 18 7553 19 3852 12 7119 14 2660 16 3057 14 2960 1 2681 2 2085 3 4342 5 6524 21 8378 13 7950 20 6788 4 6160
6519 5.7238611593623068 7.4785699743770477 11.521388520203208 161 158 151 0.57124769924489771 6 4081 7 2223 8 2336 9 3534 10 2421 11 5657 12 6744 14 2662 15 5621 16 2513 17 2969 18 7554 19 3855 3 4343 2 2395 1 2682 5 6521 21 8380 4 6155 20 6389
6520 5.091125357495689 7.6169165451604837 11.704248130119156 182 179 172 0.58154524120705653 6 4087 9 3148 10 2078 11 5659 14 2328 16 2194 18 7046 19 3496 3 4346 17 2973 1 2688 5 6044 21 7907 8 2340 4 6163
6522 6.6992137178384894 7.4959363336221472 11.439068605281978 184 181 172 0.48824815754506762 4 6168 6 4093 7 2236 8 1996 9 3154 10 2081 11 5262 12 6381 14 2331 15 5155 16 2200 17 2651 18 7565 19 3500 3 4351 1 2696 2 2090 24 2964 5 6048 22 4235 25 3716 21 7913 13 6946 20 5915
6523 6.2745424759694135 7.4872270905640255 11.334606666765918 160 157 150 0.2646963198363016 4 6171 6 4097 7 1905 8 2000 9 3158 10 2085 11 5263 12 6384 14 2334 15 5158 16 2204 17 2655 18 7051 19 3503 3 4352 1 2697 2 2094 5 6052 21 7917 13 6948 20 5919
6524 6.8072122852268739 7.4919720548493656 11.277336271415376 207 204 195 0.64552209596744325 4 6597 5 6065 6 4110 7 1914 8 2012 9 3169 11 5279 12 6757 14 2344 15 5636 17 2990 18 7572 3 4364 10 2095 19 3511 24 3440 21 8401 13 6965 23 4783 25 4276 26 3680 28 2296 20 5927
6525 5.5938180868852312 7.5799623068305388 11.305089357891967 209 205 196 0.38508068200006934 20 5932 3 4372 2 2113
6527 5.785615204627625 7.5598475382481158 11.22842023098198 155 151 142 0.38205813286587731 6 4120 7 1920 8 2016 9 3573 10 2103 11 5689 12 6397 14 2694 15 5180 16 2546 17 3012 18 7587 19 3885 3 4377 1 2722 2 2428 5 6075 13 6972 21 7933 4 6194 20 6420
6535 1.5194584369853814 8.112174617643225 11.013377088913666 186 179 172 0.32175996447827376 22 4887 3 4404 2 2145
6549 8.789437955801688 7.0219129989679816 13.91098292002132 172 169 161 0.79673602413771583 7 1998 9 3320 10 2201 14 2425 16 2282 17 2749 18 7294 3 4528 1 2810 2 2213 12 6537 5 6298 13 7197 15 5370 4 6376 20 6108
6553 7.2939746576496116 7.2277514316891027 13.056189614841111 179 175 166 0.80514051454074786 6 4293 7 2066 8 2176 9 3382 10 2627 11 5490 12 7002 14 2493 15 5903 16 2685 18 7370 19 4044 3 4572 17 3177 8 2554 2 2257 21 8184 13 7821 4 6438 20 6195
6554 7.2876553335286207 7.2235353479184052 13.046089498597565 179 175 166 0.82111173936865656 6 4294 7 2067 8 2177 9 3383 10 2628 11 5491 12 7003 14 2494 16 2686 18 7371 19 4045 3 4573 17 3178 8 2555 9 3767 2 2258 21 8185 13 7822 4 6439 20 6196
6559 8.6591238392869077 7.1499354705586393 12.763193272570808 170 166 157 0.61692461320488634 7 1750 8 2196 9 2984 10 2281 11 5503 14 2519 16 2041 17 2836 18 7388 19 3695 3 4582 6 3864 1 2887 2 2275 12 6615 5 6380 13 7289 4 6455 20 6213
6560 8.3210895635047422 7.2053661514416047 12.837321176272139 167 163 154 0.60925038351511818 8 2572 10 2283 11 5505 18 7870 3 4583 1 2888 13 7290 20 6217
6564 5.6290889573671032 7.5443014117782772 12.960113055894919 187 183 174 0.7832267582487662 6 4362 7 2113 8 2234 9 3434 10 2318 11 5543 12 6653 14 2553 15 5511 16 2408 17 2869 18 7436 19 3727 20 6264 3 4615 1 2921 2 2300 5 6411 21 8247 13 7330 4 6486
6569 7.455887776800556 7.3293610347515568 12.190808945895419 175 171 162 0.44289647031436097 6 3962 7 2138 8 2257 9 3454 10 2342 11 5576 12 6677 14 2584 15 5547 16 2441 17 2895 18 7476 19 3756 3 4627 1 2943 5 6432 21 8295 4 6503 20 6304
6570 7.455887776800556 7.3293610347515568 12.190808945895419 175 171 162 0.44289647031436097 6 3963 7 2139 8 2258 9 3455 10 2343 11 5577 12 6678 14 2585 15 5548 16 2442 17 2896 18 7477 19 3757 3 4628 1 2944 5 6433 21 8296 4 6504 20 6305
6571 7.4061692685645006 7.3477070505065774 12.214988902684452 176 171 164 0.4331443264818135 6 4395 7 2142 8 2262 9 3460 10 2347 11 5580 12 6681 14 2587 15 5550 16 2445 17 2900 18 7478 19 3760 3 4629 1 2945 2 2315 5 6437 21 8303 13 7369 4 6506 20 6307
6573 7.1189339767450939 7.3595454982352013 12.172318198691569 173 170 161 0.42469709883261542 7 2151 8 2271 9 3473 10 2357 11 5587 12 6685 15 5557 16 2453 18 7486 19 3773 3 4639 14 2594 17 2906 6 4405 1 2954 2 2327 5 6447 21 8314 13 7374 4 6515 20 6320
6574 6.1918484544595112 7.4846955974074412 12.356595553131996 168 164 155 0.73411270515441562 7 2152 8 2270 9 3474 11 5589 16 2454 18 7488 19 3780 3 4641 1 2618 2 2012 21 7831 13 7377 22 5288 4 6080 20 6319
6576 6.9064675856717672 7.2946350362097911 11.919170892099894 221 218 211 0.87547324593935816 18 7498 20 6332 3 4656 1 2968
6579 5.4069186959535172 7.5877379285034294 12.402639698020289 216 212 203 0.88770802790344727 6 4418 7 2167 9 3482 11 5601 12 6320 14 2610 16 2465 17 2599 18 6979 19 3792 3 4660 1 2974 2 2026 5 6462 21 8325 13 7391 4 6526 20 5861
6580 6.3716743958527049 7.3882277231133715 12.04653361102444 219 216 209 0.6221976496462146 6 4422 7 2173 8 2284 10 2370 14 2614 16 2471 18 7501 19 3796 3 4661 1 2975 2 2339 21 8332
6581 7.5237583196547861 7.345903348316364 11.977387032243044 191 188 179 0.80153216679861305 6 4026 10 2385 17 2619 19 3808 3 4665 2 2343 5 6478 21 7874 13 6916 20 6349
6582 7.323832767008648 7.3986240224637294 11.901563373804578 193 189 180 0.55985871596232162 6 4444 8 2319 11 5635 12 6729 15 5603 16 2499 17 2950 19 3831 3 4691 2 2370 5 6506 21 8365 25 4224 20 6371
6584 8.2083767376351737 7.3768456898516757 11.670751689678369 214 211 202 0.6261636443705525 6 4454 7 2497 8 2329 9 3525 11 5642 12 6740 15 5611 16 2785 19 3841 3 4705 14 2953 18 7983 10 2412 14 2655 18 7539 10 2735 15 6024 1 3019 2 2385 21 8806 13 7434 4 6571 20 6380
6586 7.5374876573203409 7.366841499123244 11.468567238227733 181 178 171 0.53456496431323786 4 6969 7 2214 9 3876 10 2740 11 6054 12 7118 14 2958 15 6030 16 2788 17 3289 18 7988 19 3845 3 4711 19 4144 1 3024 21 8807 13 7948 20 6785
6587 7.1552436541791655 7.4337960861813324 11.533224932986812 191 188 181 0.42097241171051925 5 6517 6 4461 7 2218 8 2335 9 3532 10 2418 11 5654 12 6743 14 2659 15 5618 16 2511 17 2965 18 7550 19 3850 3 4712 1 3025 2 2391 21 8377 13 7442 25 4250 4 6577 20 6388
6590 5.3777788153442394 7.5830484176458892 11.690113556195682 182 179 172 0.83752593563522915 6 4463 9 3540 10 2425 12 6746 16 2515 17 2971 18 7555 1 3031 2 2396 3 4718 5 6972 21 8382 4 6581 20 6391
6594 5.7985346792802774 7.4960511549934994 11.435626552562162 202 201 196 0.37180164940514432 6 4091 7 2234 8 2349 18 7050 3 4729 1 3042 2 2408 4 6591
6595 7.1214484519561427 7.4633392125633637 11.167190414343114 179 175 166 0.4760748196755783 4 6608 5 6545 6 4492 7 2250 8 2687 9 3563 10 2758 11 5681 12 7138 14 2690 15 5645 17 3001 18 8012 19 3874 3 4743 16 2812 16 2537 1 3053 2 2419 2 2707 21 8408 13 7475 27 2135 29 1161 20 6413
6596 7.2278993308803443 7.4734623898332497 11.192542992258671 172 168 159 0.41694024644982242 4 6610 5 6546 6 4118 7 2251 8 2364 10 2449 11 5682 12 6769 14 2691 15 5646 16 2538 17 3002 18 7582 19 3875 3 4744 9 3174 1 3054 2 2420 21 8409 13 7476 20 6414 20 6814
6603 5.5165348125092653 7.572828771169255 11.210469250737088 175 171 162 0.76481289486292725 6 4508 7 2259 8 2373 11 5694 12 6772 14 2696 16 2826 17 3016 18 8023 19 3886 11 6084 1 3071 3 4760 5 6556 21 8842 4 6624 20 6827
6604 4.9254461787502546 7.6859582033866207 11.360074757382227 182 178 169 0.94410814427244194 7 2530 8 2705 10 2774 11 6086 14 2991 16 2829 18 8026 19 4179 3 4766 1 3078 2 2434 5 7005 4 7002 20 6834
6627 7.704819442519276 7.2137049864556291 13.0931053624076 172 168 159 0.74697721872291678 6 4695 7 2657 8 2837 9 3762 10 2613 11 6310 14 3114 16 2679 17 3450 19 4037 3 4960 1 3227 2 2577 12 7384 18 7843 21 8661 5 6844 13 8248 15 6212 4 7227 20 6664
6628 7.704819442519276 7.2137049864556291 13.0931053624076 172 168 159 0.74697721872291678 6 4696 7 2658 8 2838 9 3761 10 2614 11 6311 14 3115 16 2678 17 3451 19 4036 3 4961 1 3226 2 2578 12 7383 18 7842 21 8660 5 6845 13 8249 15 6213 4 7228 20 6663
6629 6.8271541738704498 7.3587129568202316 13.304372124404361 189 185 176 1.1592610960884886 7 2403 8 2552 9 3764 10 2625 11 5935 14 2848 15 5909 16 2683 17 3185 18 7854 19 4047 3 4968 6 4300 1 3243 12 7000 5 6361 21 8670 13 7828 4 6855 20 6673
6630 6.7586524687418397 7.3088224316113335 13.181357268335205 189 185 176 1.4521196225033821 7 2404 8 2553 9 3765 10 2626 11 5936 14 2847 15 5908 16 2684 17 3186 18 7853 19 4046 3 4969 6 4700 6 4299 1 3244 12 7001 5 6360 21 8669 13 7827 2 2260 4 6856 20 6672
6637 7.4386502266367005 7.2293147747071238 12.718084293171984 180 176 165 0.74619295252903961 6 4726 7 2428 8 2580 9 3787 10 2653 11 5959 14 2871 16 2709 17 3205 18 7886 19 4069 3 4988 1 3263 2 2607 12 7023 5 6876 21 8700 13 7855 15 5934 4 6882 20 6701
6645 7.8208424881134491 7.2820957696952737 12.048953325061367 218 215 208 0.52016109203369176 6 4790 8 2644 9 3852 10 2710 12 7092 14 2926 15 5996 16 2767 17 3262 18 7959 19 4119 3 5040 1 3313 2 2668 5 6933 13 7915 4 6938
6646 7.9894095278341215 7.2944812355289885 12.102372539658994 221 218 211 0.42046055366297608 14 2927 18 7956 3 5041 1 3314 2 2664
6647 6.2541507392500071 7.3435063964214127 12.046800551742882 179 175 166 1.0251636314442611 6 4791 8 2643 9 3853 10 2709 12 7091 14 2928 15 5994 17 3261 18 7957 19 4121 3 5042 1 2961 2 2669 5 6932 21 8777 4 6939 20 6757 4 6518
6648 5.8649814139237026 7.5038774455204296 12.259306165310939 219 216 209 0.74888295342705202 6 4796 7 2476 10 2714 11 6032 12 7095 15 6000 16 2770 17 3267 18 7961 19 4125 3 5045 1 3317 2 2672 5 6937 21 8782 13 7919 4 6941 20 6759
6649 6.2805699896782956 7.4326638610146718 12.139357224981508 214 211 204 2.0809930180106928 9 3855 19 4127 20 6760 3 5049 2 2337 14 2611 8 2281 1 3320
6652 7.9669278772729202 7.3564018239099855 11.613159116394284 215 212 203 0.91777934641768721 7 2499 8 2668 9 4098 10 2737 11 6402 12 7115 14 3205 15 6026 16 3053 17 3536 19 4387 3 5073 1 3573 2 2920 18 7984 21 9204 5 6967 13 7943 4 6965 20 7126
6653 6.4866576890118841 7.4600408731937957 11.517297868685414 194 191 184 0.96515895490557713 4 6972 6 4828 9 3878 14 2962 16 2792 17 3292 19 4148 20 6790 3 5077 8 2337 1 2686 3 4345 2 2086 5 6974 21 8812 13 7952 13 7447
6654 6.7713787729754529 7.4361729871487317 11.344056538244002 213 213 205 0.44923075239893767 4 6979 5 7384 6 4835 7 2510 8 2680 9 3884 10 2749 11 6061 12 7127 14 2968 15 6040 16 2799 17 3296 18 8337 19 4154 3 5082 1 3349 2 2702 21 9216 13 7956 20 7135
6655 6.5591153005197054 7.5105183418445609 11.306988627759937 210 207 198 1.5731941283438573 7 2512 12 7128 3 5084 4 6596 10 2437 15 6043 3 4737 7 2242 11 5670 17 2989 19 3865 14 2682 15 5635 1 3050 24 3436 13 6964 26 3675 20 6796
6656 6.6586007399784117 7.5064582358959715 11.317945894103836 210 207 198 0.46038414721695642 4 6981 6 4838 7 2513 8 2682 9 3886 10 2751 11 6062 12 7129 15 6042 16 2801 17 3298 18 7998 19 4156 3 5085 1 3352 2 2704 5 6984 21 8819 25 5209 13 7958 20 6797
6657 6.7323474686933871 7.4996008592685746 11.304034767287376 204 201 192 0.64755429613586057 6 4839 7 2514 9 3887 12 7130 18 7999 20 6798 3 5086 5 6985 21 8820
6658 7.3348694575987832 7.43384754339748 11.12385265559765 183 179 170 0.95407303429209833 5 6989 6 4844 7 2516 8 2951 9 3896 10 2759 11 6071 14 2975 15 6047 16 2813 17 3313 18 8013 19 4158 3 5090 2 2705 21 8832 13 7968 20 6815
6660 6.6106220657973456 7.5292947785426891 11.256687376818542 167 163 154 0.8696690504269019 4 6996 5 6996 8 2691 11 6076 16 2818 17 3311 18 8011 3 5095 13 7972 28 2669 20 6813
6672 5.9329076518868638 7.5371304595522357 10.947145939529387 188 184 175 0.59012292540943267 8 2393 18 7615 20 6847 6 4542 19 3899 3 5120 21 8432
6673 6.0509163286668635 7.5514381333048881 10.97588164364694 190 186 177 0.28661212050611595 4 6642 18 8046 1 3097 3 5121 21 8864
6692 6.8399941858445299 7.2921191575836897 13.136200633959772 178 174 165 0.49005706292427442 6 5020 7 2664 8 2842 9 4021 10 2920 11 6317 12 7389 14 3119 15 6215 16 2973 17 3456 18 8253 19 4308 3 5274 1 3485 2 2829 5 7272 21 9120 13 8254 20 7033
6693 6.8399941858445299 7.2921191575836897 13.136200633959772 178 174 165 0.49005706292427442 6 5021 7 2665 8 2843 9 4022 10 2921 11 6318 12 7390 14 3120 15 6216 16 2974 17 3457 18 8254 19 4309 3 5275 1 3486 2 2830 5 7273 21 9121 13 8255 20 7034
6699 7.7048224684527913 7.2652385714046641 12.243979541806905 205 201 192 0.86215299759359543 6 5070 7 2716 8 2893 9 4057 10 2973 11 6362 12 7432 14 3172 15 6270 16 3020 17 3503 18 8301 19 4351 3 5324 1 3525 2 2878 5 7331 21 9174 13 8303 4 7279 20 7096
6700 7.3660119300571898 7.2905083727642701 12.23904466863368 211 207 198 0.79848297334744245 6 5071 8 2894 9 4058 10 2974 11 6364 12 7433 16 3234 18 8618 3 5327 1 3528 2 2879 13 8307 20 7410
6701 5.8169783582401688 7.4361792388038426 12.376902083831579 214 210 201 0.98717305233666541 6 5073 10 2977 11 6366 14 3175 17 3507 18 8303 19 4354 20 7098 3 5330 1 3531 2 2882 12 7435 5 7333 13 8308
6704 6.7608312647308972 7.428406178401521 12.412711620919271 213 209 200 0.74299719031991429 11 6684 14 3415 16 3239 3 5335 12 7863 15 6557 1 3748 2 3062 13 8657 24 5086 20 7416
6706 7.646325218570504 7.2910681340901133 12.017929583955098 217 214 207 0.57716935792997826 7 2729 9 4079 10 2989 11 6380 12 7450 14 3190 15 6289 16 3034 17 3516 18 8315 3 5350 1 3545 2 2897 21 9183 13 8325 4 7294 20 7110
6709 6.4055933806929195 7.4969123548165637 11.772945906725299 219 216 209 0.65237965142894472 6 5113 7 2755 8 2937 9 3873 10 3011 11 6403 12 7471 14 3206 15 6315 16 3054 17 3537 18 8329 19 4388 3 5374 1 3339 2 2689 5 7373 21 9205 13 8340 4 7317 20 7127
6710 7.3162028849555432 7.4123360369266189 11.533855855960562 198 195 188 0.5503706934316267 4 7318 6 5115 7 2756 8 2938 9 4099 10 3012 11 6404 12 7472 14 3207 15 6316 16 3055 17 3538 18 8330 19 4389 3 5376 1 3575 2 2921 25 5182 5 7375 21 9208 13 8341
6711 6.8595260405569496 7.4508075280838515 11.515269071389911 190 187 180 0.41349896526657365 4 7322 6 5118 7 2760 8 2941 9 4103 10 2741 11 6408 12 7476 14 3210 15 6320 16 3059 17 3542 18 8334 19 4391 3 5379 1 3579 2 2923 5 7378 21 9212 13 8345 20 7130
6712 6.8862116862368747 7.4707180386649563 11.556340041130964 190 187 180 0.59062181825964821 6 5119 7 2759 8 2942 9 4104 10 2742 11 6407 12 7475 14 3211 15 6319 16 3060 17 3541 18 8333 19 4392 3 5380 1 3580 2 2924 5 7379 21 9211 13 8344 25 5181 23 6622 29 1815 4 7323 20 7131
6713 6.3493728985213007 7.5340216898569121 11.532314772283961 229 228 223 0.97810294810255305 4 7326 6 5121 7 2764 8 2945 9 4105 10 3019 11 6412 12 7905 14 3212 15 6324 16 3061 18 8662 19 4393 3 5382 1 3583 2 2926 5 7382 21 9672 13 8347 20 7465
6714 6.3552310868613757 7.4723396869414564 11.420694502128969 227 226 221 0.38730921392976936 6 5122 7 2762 8 2943 9 4106 10 3016 11 6413 12 7477 14 3213 15 6321 16 3062 17 3543 18 8335 19 4394 3 5383 2 2927 5 7380 21 9213 20 7132
6716 7.273209730712245 7.456635008558405 11.161415798479021 173 169 160 0.65028557013710275 4 7333 5 7391 6 5129 7 2772 8 2950 9 4110 10 3025 11 6420 12 7488 13 8357 14 3221 15 6330 16 3068 17 3546 18 8345 19 4400 3 5388 2 2933 21 9222 20 7142
6718 6.3446782088686158 7.5457773277950668 11.143799456617101 208 204 195 1.1049444513130977 4 7342 7 2780 9 4116 14 3231 17 3551 19 4408 3 5393 24 4794 2 2939 5 7399 21 9685 26 5303
6724 3.251217657803855 7.91606298986959 11.020457936198429 202 199 192 0.44392472101090164 6 5165 9 4142 11 6453 14 3254 17 3577 18 8379 12 7514 23 6159 15 6364 3 5418 1 3625 4 7367 20 7181
6726 6.1035590045998367 7.6622141116680877 10.319202391349426 162 159 152 1.9392400659413243 11 6467 17 3822 18 8395 19 4445 24 4481 3 5428 25 5359 30 3274
6730 5.6049205738899861 7.7064962313981917 10.369610059425147 167 164 157 1.2390318822427666 7 2820 8 2996 10 3074 11 6473 12 7528 15 6374 16 3102 17 3599 18 8399 19 4447 23 6218 13 8394 21 9268 3 5433 24 4469 22 6422 25 5345
6737 6.5656435699437825 7.3546544630301627 13.304684226941514 189 185 176 0.8210183959808276 6 5329 7 2922 8 3082 9 4279 10 3164 11 6632 12 7818 14 3366 15 6505 16 3189 17 3700 19 4575 3 5508 18 8565 18 8812 1 3693 2 3015 21 9582 5 7888 13 8606 4 7596 20 7356
6738 7.329267317108302 7.247475050081734 12.921534723951019 211 207 198 0.87566599179883942 6 5342 7 2928 8 3091 9 4287 10 3170 11 6638 16 3196 18 8577 3 5516 1 3699 2 3021 5 7642 13 8614 20 7368
6739 7.329267317108302 7.247475050081734 12.921534723951019 211 207 198 0.8756659917988393 7 2929 8 3092 9 4288 10 3171 11 6639 16 3197 18 8578 3 5517 6 5343 1 3700 2 3022 5 7643 13 8615 20 7369
6740 6.5497057251019548 7.3873021791237514 13.130769893293543 207 203 194 1.1878421255087583 6 5348 7 2941 8 3098 9 4292 10 3180 11 6654 12 7836 14 3381 15 6525 16 3203 17 3722 18 8592 19 4589 1 3712 2 3029 5 7649 21 9603 13 8630 4 7609 20 7382
6741 6.5497057251019548 7.3873021791237514 13.130769893293543 207 203 194 1.1878421255087583 6 5347 7 2940 8 3097 9 4291 10 3179 11 6653 12 7835 14 3380 15 6524 16 3202 17 3721 18 8591 19 4588 1 3711 2 3028 5 7648 21 9602 13 8629 4 7608 20 7381
6742 6.8892443742397829 7.3534346554075434 13.091751495718245 214 210 201 0.74272046174433293 6 5349 7 2934 8 3101 9 4295 10 3184 11 6645 12 7839 14 3385 15 6517 16 3207 17 3713 18 8584 19 4586 3 5521 1 3704 2 3032 5 7652 21 9595 13 8622 24 5054 4 7612 20 7376
6743 6.8548921337266151 7.328188165881631 13.030478695818784 214 210 201 0.76463976116274968 6 5350 7 2935 8 3102 9 4296 10 3183 11 6646 12 7840 14 3384 15 6518 16 3206 17 3714 18 8583 19 4585 3 5522 1 3705 2 3033 5 7653 21 9594 13 8621 4 7613 20 7377
6744 7.0312922829575175 7.3502359231678822 13.088580670108353 219 215 206 1.1567852728975851 7 2944 8 3103 10 3185 14 3386 15 6528 16 3208 17 3725 18 8595 19 4592 3 5523 5 7654 13 8633 4 7614
6745 7.0312922829575175 7.3502359231678822 13.088580670108353 219 215 206 1.1567852728975851 7 2945 8 3104 10 3186 14 3387 15 6529 16 3209 17 3726 18 8596 19 4593 3 5524 5 7655 13 8634 4 7615
6747 5.5799402484447294 7.5327720861280527 12.578001854354515 210 206 197 0.99051240579683897 6 5378 7 2971 9 4318 11 6679 14 3412 15 6553 17 3748 18 8619 3 5556 12 7859 2 3057 1 3745 21 9627 13 8652 24 5080 20 7412
6748 5.7032783986370337 7.5263211489409452 12.565638503889289 215 211 202 0.68118061815504283 9 4319 10 3212 11 6680 12 7860 15 6554 16 3235 17 3749 18 8620 19 4617 3 5557 6 5379 7 2974 14 3413 8 3126 1 3746 2 3060 5 7677 21 9628 13 8653 20 7413 4 7642
6749 5.2710676538717953 7.5714573893439914 12.604210218357446 210 206 197 0.88691100747043028 6 5382 7 2976 8 3128 9 4321 10 3215 11 6683 12 7862 14 3414 15 6555 16 3238 17 3751 18 8621 19 4619 3 5558 1 3749 2 3063 5 7680 21 9629 24 5078 13 8656 23 7050 4 7643 20 7415
6754 8.3415290097918628 7.3913639568892382 11.618128248537877 161 158 151 0.67385745827315868 6 5418 7 3011 8 3161 9 4349 10 3246 11 6717 12 7896 14 3446 16 3264 17 3781 18 8655 19 4649 3 5590 1 3783 2 3098 21 9664 5 7710 13 8688 4 7675 20 7453
6755 7.8123733620504279 7.3850966977696029 11.540662506405617 173 170 165 0.37120497154895105 6 5419 7 3013 8 3163 9 4350 10 3248 11 6718 12 7898 14 3447 15 6598 16 3266 17 3783 18 8656 19 4650 21 9665 3 5591 1 3784 2 3099 5 7712 13 8689 4 7676 20 7455
6756 4.7332624010520563 7.6770710118494803 11.927652699295518 220 216 207 1.2792426506203778 7 3012 10 3247 14 3445 16 3265 3 5592 1 3785 23 7060 12 7897 17 3782 5 7711 24 5092 8 3162 20 7454 25 6023
6757 6.6985887587804278 7.4773025288090249 11.612092825565702 207 204 197 0.57828789148099613 4 7677 6 5420 7 3015 8 3165 9 4351 10 3250 11 6719 12 7900 14 3448 15 6600 16 3267 17 3785 18 8658 19 4651 3 5593 1 3786 2 3100 5 7715 21 9666 13 8691 20 7458
6760 6.832380057398268 7.4858233133566507 11.208486559226516 180 176 167 0.54773203047966867 4 7685 5 7725 6 5430 7 3022 8 3174 9 4360 10 3259 11 6728 12 7909 14 3459 15 6608 16 3276 17 3794 18 8666 3 5599 1 3793 2 3110 21 9676 13 8699 20 7470
6761 7.6935102425319499 7.4697354388971835 11.214096137226916 185 181 172 1.0217545202920839 5 7727 6 5431 7 3023 8 3175 9 4363 10 3261 11 6729 12 7911 14 3642 15 6610 16 3278 17 3796 19 4659 21 9223 3 5601 9 4520 16 3452 17 3953 1 3794 13 8700 18 8667 18 8852 20 7685 4 7686
6764 4.8055440878978679 7.7308573945803341 11.291955506994881 203 199 190 1.2205107365710062 6 5440 9 4372 18 8676 3 5609 1 3804 2 3118 21 9689 22 6635 23 7077 24 5113 20 7482
6774 9.3151520997518222 7.2677415165386643 12.186601634501027 209 209 201 1.7873128887822618 9 4504 16 3436 18 8834 12 7866 2 3176 1 3750 10 3216 3 5688 13 8892 21 9636 20 7657
6778 7.2946954170276816 7.4311614095980287 11.380776053346022 221 220 215 0.93085750122299005 4 7825 5 7914 6 5717 7 3187 8 3342 9 4516 10 3429 11 6902 12 8206 14 3637 15 6797 16 3542 17 3947 18 8967 19 4828 3 5701 1 3896 2 3257 21 10061 13 8902 20 7681
6779 6.4273834108037855 7.5140330417305412 11.237121786304861 186 182 173 0.87658161253069 6 5603 7 3190 8 3343 9 4518 10 3433 12 8113 14 3640 15 6799 16 3451 17 3951 18 8851 19 4830 3 5704 1 3897 2 3191 20 7684
6788 7.7258666032880532 7.4061154988149589 11.347408523276828 227 226 222 0.45102749755134608 6 5719 7 3285 8 3441 9 4597 10 3523 11 7005 12 8208 14 3744 15 6913 16 3544 17 4045 18 8969 19 4931 21 10063 3 5766 1 3959 2 3259 5 8020 13 9022 4 7895 20 7815
6789 7.7392885055815306 7.4150713994789585 11.366050264931632 227 226 222 0.40995178666712145 6 5720 7 3286 8 3442 9 4598 10 3524 11 7006 12 8209 14 3745 15 6914 16 3545 17 4046 18 8970 19 4932 3 5767 1 3960 2 3260 5 8021 13 9023 4 7896 20 7816
6792 6.2019149791714971 7.5027194563014605 11.176374986894583 178 174 165 0.74662294487390024 4 7902 7 3290 8 3447 10 3527 11 7014 14 3748 15 6919 16 3550 17 4051 20 7819 3 5771 1 3965 2 3264 18 8972 5 8027 13 9029 21 10068
6802 9.6407558846361585 6.9971604437759112 13.346707741333471 222 219 212 0.69958995245573241 11 7099 18 9108 3 5848 2 3347 6 5819 4 7973 20 7927
6803 6.6447353555393489 7.4911082506205489 11.153043286811066 180 176 167 1.1779847402401749 4 7956 5 8103 6 5825 7 3395 8 3531 9 4676 10 3604 11 7104 12 8291 14 3857 15 7020 16 3649 17 4166 18 9112 19 5054 20 7935 3 5851 1 4037 2 3337 21 10179 13 9117
6805 7.4360108938976399 7.5205290590736338 10.980341304272519 194 190 179 1.7295091587271259 5 8140 7 3408 9 4707 10 3638 11 7122 12 8326 14 3872 15 7049 16 3677 17 4183 18 9125 19 5071 21 10216 3 5858 2 3362 13 9154 8 3562 1 4063 4 7988 20 7951
6807 6.8080038650987449 7.4211815300477504 11.811542987987909 210 207 200 1.71222335072197 4 8004 7 3419 8 3582 9 4717 10 3644 11 7134 12 8343 14 3882 15 7058 16 3685 17 4195 18 9136 19 5087 20 7965 3 5867 2 3374 5 8155 13 9170 21 10227
6842 6.2856729039957315 7.4263584335828208 12.232836661583182 177 173 164 0.61004459737739414 10 2361 12 6689 14 2596 15 5559 3 4647 18 7489 20 6756 2 2331 21 8316
6843 6.4245738421709913 7.416769928027084 12.209909307982711 184 179 171 0.67536204985402959 9 3476 10 2712 15 5995 16 2769 3 4650 4 6940 6 4792 11 6030 14 2929 17 3263 18 7958 19 4122 9 3854 1 2962 2 2670 5 6934 21 8319 21 8778 13 7914 4 6519
6873 8.3096912262658247 7.1310971292122121 13.412092830450597 198 195 188 0.5372123275568107 18 1827 19 1801 1 601 10 483 11 1412 15 2940
6875 6.5592274519783285 7.2771550163618013 13.046626634248348 160 156 146 1.1746060650803858 6 828 8 460 9 876 10 1004 14 584 15 1484 16 548 18 1992 1 649 17 644 19 1862 3 1133 11 1461 16 552 2 456 12 1362 13 1802 4 3132
6876 7.0734430659680489 7.2837283585836294 13.096935332620756 153 149 138 0.54508283355227871 3 1134 6 842 11 3092 12 1365 1 650 19 1863 7 505 14 587 18 4131 21 4302 20 3319
6881 7.3255544786038271 7.3234980246254953 11.960612103223497 189 185 176 1.5456745397258449 6 1271 9 1072 10 663 12 1554 17 1451 18 4435 19 1146 1 886 8 596 7 612 15 1712 2 607 21 2202 13 4276 15 1697
6886 6.240149118434168 7.4556451830830079 11.446475343225998 189 186 179 0.91612560509448815 6 1389 8 647 10 709 11 3275 12 1609 14 806 15 1776 16 754 20 3587 1 1007 17 1494 19 1218 3 1494 2 1146 5 1563 21 4619 4 1574
6892 8.9676461452096241 6.9752391154270175 14.097788220384498 196 193 186 0.56120958794686682 14 1020 16 929 18 3885 6 469 1 1340 2 313 12 3309 13 1548 15 1182
6893 8.9812912957006521 6.9835466948624925 14.118877483477771 196 193 186 0.30947734160768681 14 1021 16 930 18 3886 1 1341 15 1183
6896 7.5360153552680922 7.1342754189776629 13.302399953786596 202 198 189 0.99069678648555393 6 685 9 822 16 513 18 4019 1 1399 14 529 17 591 11 1415 13 4070 15 1427 20 1369
6897 9.6978570228271259 7.0369284192866139 12.98917943373857 206 202 193 0.32107454818269865 9 2218 18 4039 1 1407 19 2504
6899 7.5377441257631581 7.1797707126316617 13.064900372478021 212 208 197 0.91447667825447265 7 466 18 4049 1 1412 12 1333 6 739 10 505
6905 4.9636502670429232 7.6322285066109652 12.544796220637897 196 192 181 0.39464671472878932 9 1874 18 4409 1 1565 20 3532
6907 5.8793893050855068 7.4568597431330375 12.228379880363278 207 203 194 0.76184075289694575 10 1397 19 1127 20 3534 1 1567 6 1243 17 1445 8 1328 3 1388 11 1631
6909 6.317560859119002 7.4518399569131768 11.564242273003952 202 199 192 1.522240293669918 3 1476 6 2387 8 1086 9 1142 10 1136 11 1695 12 1596 18 4472 1 1634 2 1128 9 2365 4 1555
6910 6.2850679955038222 7.4574139485439002 11.547336752615777 160 157 150 1.6751560139284576 10 700 17 846 18 2498 20 1899 1 1638 21 4611 8 637 20 1903
6912 5.8379341657900694 7.5301445063550441 11.149262241551753 167 163 152 0.51478821714491052 11 1722 17 868 8 665 15 1805 2 1172 1 1673 21 2310 4 3353 20 3596
6920 7.6017600221910167 7.2146212146322659 13.477896304466237 190 186 177 0.64015805545861781 7 1165 8 1219 9 2215 10 1299 11 4082 17 1746 18 5453 1 1874 5 4723 13 5550 15 3901 4 4723
6923 7.5313663983512233 7.2447623515881157 12.692455230834145 204 197 187 0.7487773828171792 9 2650 15 3970 17 1800 1 1923 18 5552 6 2908 10 1338 7 1479 11 4129 7 1480 8 1265 9 2262 14 1555 19 2561 8 1544 14 1556 9 2263 10 1339 15 3969 17 1799 6 2909 16 1101 18 5553 19 2562 2 525 2 1661 6 972 12 5770 21 7185 5 5517 13 5609 13 5608 20 4548
6927 6.323090859514628 7.5331049506009338 11.428154384313688 163 160 151 0.43132306154425515 22 3588 1 2041 24 1693
6928 5.8593676323973636 7.5884786826375903 11.347816154590612 202 198 188 1.4996993844675433 7 1607 8 1382 9 2383 15 4724 1 2047 6 4116 10 1742 11 5286 14 2345 18 7059 2 1786 5 4819 22 4250 8 2358 4 4898 20 5373
6943 6.3631197699972422 7.3156834547466865 13.158717662196922 177 173 164 0.70725522072271185 3 3787 7 1462 8 1239 12 5005 14 1830 16 1722 17 1764 18 6247 1 2225 15 3928 19 2517 9 1731 10 998 20 3281 16 546 6 809 2 1336 21 4268 13 5566 4 3127
6946 3.9905288401263683 7.6579482824593565 13.250231489092695 172 165 155 0.97663395980627665 3 3802 7 1481 10 1627 11 4670 12 5772 14 1852 15 4588 16 1419 17 2119 19 2991 22 4046 9 2266 18 5555 6 2914 2 1950 5 5518 21 7188 13 5611 1 2248 8 1841 4 5537 20 5256
6947 7.8319273048412574 7.3389359986801059 12.274762805263128 159 155 146 0.61380293801004671 3 3844 6 3501 7 1814 8 1903 9 2691 12 5814 15 4643 16 1793 19 3413 1 2285 14 2238 17 2563 18 6937 21 7800 5 5951 13 6426 4 5574 20 5812
6951 5.9695470958011239 7.3962146560014377 12.08649763362841 216 212 203 1.2526773440390153 7 1543 8 1606 9 2721 10 1689 12 5834 14 1916 17 2186 19 3439 20 5316 1 2325 18 6971 16 2132 10 2014 2 1709 21 7285 5 4778 13 6444 4 5601
6954 7.4873120466222254 7.3422174623238794 11.941775254557003 190 186 177 1.7698406038072767 7 1557 11 4745 12 5849 14 1635 1 2338 9 1904 18 5690 12 3571 1 905 11 3238 19 1162 3 1412 6 2345 15 3133 2 1100 5 3351 4 1501 13 6915 15 4675 4 5613 20 4675
6968 9.0201721931280208 7.0263054195959214 14.067281890227019 215 212 205 1.0318307058692997 8 1468 14 1770 16 1943 18 6699 19 3230 1 2488 2 1891 12 5699
6969 9.0795655732576162 7.1533873168602389 14.198682733331516 214 211 204 0.84058608484330855 7 1417 16 1672 17 2372 18 6716 8 1475 6 3786 1 2498 5 5873 20 5610
6978 5.4536957751257491 7.554069874084429 12.858233432880798 206 202 191 0.56325310212474722 11 5147 12 6257 14 2214 15 5037 16 2090 18 6903 19 3395 1 2572 2 1970 21 7768 13 6840 20 6275
6982 7.5124367417697426 7.3385237434855446 12.213879106546125 160 156 147 0.43801109265284743 7 1819 8 1908 12 6297 14 2247 15 5066 1 2596 2 1995 21 7262 20 5824
6984 5.4928364384740975 7.5374633949712475 12.472163540748607 210 206 195 0.7877704236041696 16 2115 18 6945 1 2601 8 1593 17 2576 14 1902 20 5823
6985 6.898597939625752 7.3532018049721177 12.177691532744657 209 205 196 0.79068187895490105 7 1823 8 1911 10 1992 12 5824 14 2254 18 6958 1 2604 16 1805 17 2175 5 5969 21 7806 13 6874 20 5835
6988 6.0565764683167327 7.4961955354519398 11.591860861891815 169 168 158 0.46236852813429952 8 1990 9 2778 10 1727 11 4777 12 5881 15 4710 16 2190 17 2963 19 3493 1 2678 18 7040 2 1764 5 5593 21 7902 13 6497 4 5659 20 5358
6989 6.6536757426257367 7.4794431388439842 11.560188366980048 190 187 180 0.78835085265841764 6 3605 7 1595 8 1992 9 3147 11 5259 14 1966 16 2193 17 2242 18 7044 19 3107 1 2684 3 3927 20 6394 5 6042 21 7905 13 6945
6992 6.4876024340347174 7.5224697576402448 11.362012680446064 191 187 178 0.57162515604568487 4 6177 6 4104 7 1911 8 2006 9 3163 10 2092 11 5271 12 6387 14 2343 15 5167 16 2208 17 2659 18 7056 19 3508 1 2699 3 3935 2 2095 5 6056 21 7923 13 6957 24 3434 20 5923
6993 6.4243036557955806 7.4801959571373038 11.210199260300879 207 203 194 0.4997720793164307 6 4111 9 3171 14 1974 17 2249 18 6434 1 2710
7014 6.4133565050755585 7.277056137230189 13.075582989834531 180 176 167 0.60547846496083246 6 4297 7 2068 8 2182 9 3386 11 5488 15 5441 16 2355 18 7374 1 2873 13 6788
7019 7.9355754473987927 7.315081651727434 12.154162643274766 215 211 202 0.51340976062216903 6 4404 7 2145 8 2268 9 3469 10 2354 11 5586 14 2590 15 5556 16 2452 17 2905 18 7485 19 3770 1 2949 2 2322 12 6684 5 6442 13 7373 4 6512 20 6317
7020 7.5333734408291555 7.3972227321613051 12.253463764508826 213 209 200 1.0588387583627012 6 4411 7 2158 8 1921 10 2363 11 5187 12 6692 14 2599 16 2461 17 2587 18 6965 19 3432 1 2963 2 2014 5 6451 21 8320 13 7383 20 5842
7021 5.3161906733922644 7.570641840221783 12.341475291141023 217 213 203 0.62567415409126836 6 4421 7 2172 9 3486 11 5606 12 6700 14 2613 15 5567 16 2468 17 2917 18 7963 19 3794 6 4798 1 2976 5 6465 5 6941 21 8785 21 8329 20 6335 4 6529
7022 5.7522422552179098 7.5223565591651118 11.698412524566896 211 207 198 1.1042857995519142 9 3528 10 2416 11 5646 18 7985 1 3023 2 2390 13 7436 20 6383
7023 6.9854165453796631 7.4178514462382346 11.482804291406728 190 187 178 0.64513961077421322 7 2217 8 1991 9 3536 10 2422 11 5653 12 6745 14 2663 15 5622 16 2514 17 2970 18 7549 19 3851 1 3028 4 6158 5 6522 21 8381 13 7445 20 6390
7024 5.3904307853205946 7.5973509848231533 11.71981540188114 180 177 170 0.36649437410526797 6 4464 9 3541 10 2426 18 7556 1 3032 2 2397 20 6392
7025 5.1640955152169585 7.6428144095772641 11.761085766734984 182 179 172 0.87853719016134901 8 2676 9 3879 10 2745 12 7122 14 2964 16 2795 1 3034 7 2504 15 6035 2 2695 23 6085 24 4324 5 6976 21 8813 20 6792
7026 4.88271725671465 7.6294086730754485 11.697765545987867 177 174 167 0.94931654072869454 10 2743 11 6057 16 2793 1 3037 18 7994 5 6978 20 6791
7028 7.2413507645024096 7.4832936652548003 11.211768928342371 168 164 155 0.5398936139273468 4 6611 7 2252 18 7583 1 3055
7048 7.3733846078096903 7.1352750661326416 12.858180292400982 181 177 166 1.1372840999204874 8 2546 9 3759 20 6661 1 3234 5 6852
7049 7.3733846078096903 7.1352750661326416 12.858180292400982 181 177 166 1.1372840999204874 8 2547 9 3760 20 6662 1 3235 5 6853
7052 9.2222862437447279 7.1118207219531469 12.888718197103897 209 205 196 1.077313106300096 8 2559 18 7861 1 3247 4 6861 20 6678
7057 9.2466866794554274 7.1929376141360866 12.204688618906182 182 179 170 0.93253001200534757 9 3842 10 2694 12 7071 18 7938 1 3306 2 2648 15 5976
7059 7.3682883558821199 7.3486442107388905 11.911259265745993 215 211 202 0.24875323273038089 6 4806 18 7971 1 3323
7060 7.5419300228881703 7.500824097722786 11.266834251642747 183 179 168 1.0591547901699041 5 6990 6 4845 9 3890 10 2760 11 5683 14 2976 16 2814 21 8410 7 2249 18 7578 19 3871 7 2517 18 8014 19 4159 13 7969 1 3353
7080 6.4055946174976528 7.4231088065676714 13.425273445960821 183 179 170 0.91168017038581484 8 2550 11 6316 14 3111 16 2680 18 7850 1 3484 10 2622 2 2827 21 8666 5 7270 13 8253 20 6669
7084 7.9426314709217491 7.2478611787157874 12.241489353355274 209 205 196 1.2412503061930906 6 5068 7 2717 10 2972 11 6360 14 3170 15 6269 17 3501 18 8302 19 4350 1 3523 2 2877 21 9175 13 8306 20 7092
7088 6.1308595566583763 7.4806862774048071 11.564686996345348 173 170 163 0.51149381734220478 6 5116 7 3014 8 3164 9 4100 10 3249 11 6405 12 7899 14 3449 15 6599 16 3268 18 8657 19 4652 20 7459 2 3101 5 7714 21 9667 13 8690 1 3576 4 7319
7090 7.0058976619526492 7.4751259193771737 11.190676148533623 174 170 159 1.2548114907862455 3 5088 5 7726 6 5128 7 2771 8 2949 11 6417 12 7910 14 3460 15 6609 16 3067 18 8344 19 4399 1 3589 4 7332 9 4361 10 3260 17 3795 2 3111 21 9677 13 8355 25 4761 24 3911 23 6133 26 4778 28 3104 29 1856 27 2959 20 7471
7098 4.4828015151691316 7.5735185911678116 13.602653745120472 181 177 167 1.3444657091014858 9 4278 10 2917 11 6309 16 2968 19 4304 2 3016 12 7382 18 8245 5 7264 13 8247 21 9111 24 5048 22 6551 1 3694 20 7026
7099 7.5276101659844725 7.2549912043457585 12.963596561074187 204 200 189 0.98543137155362392 7 2930 8 3085 10 3172 11 6640 14 3373 17 3706 18 8579 19 4582 1 3701 12 7822 21 9591 5 7644 13 8616 20 7370
7131 5.967111976080707 7.543125040963842 12.085682999544018 221 217 208 1.2211928160798102 8 3530 9 4675 11 7085 12 8290 14 3838 18 9091 19 5032 1 4036 2 3336 5 8102 24 5463 21 10178 15 7019 23 7489 20 7915
7168 10.856925674343573 6.8441911981907699 13.988565165678873 183 180 173 0.55573421276326584 12 1136 18 1502 2 311 16 318 4 1104 20 1087
7173 6.9101800508229649 7.2734607418755379 13.158119038638153 186 182 173 0.13128963529243218 11 1443 20 1455 2 432
7174 6.8360019197678623 7.2884189817333418 13.104068082009984 175 171 162 0.28728542968360821 11 1462 18 4124 2 454
7178 8.3537520044234306 7.1860061474427788 12.730212481137297 209 205 196 0.40085921489199805 6 952 7 532 9 936 11 1541 19 987 2 517 14 1202 16 1095 17 1366 12 3470 18 4236 4 1356 20 1630
7183 1.1538039153021948 7.9586577670793552 13.4392398589519 174 170 161 0.97618987067750385 22 702 2 561 1 789 4 1414 6 1066
7185 1.4672608672867109 7.9502534644853977 13.100370291399626 181 177 168 1.1018547374425776 9 1022 22 825 2 580 12 1503 14 715 13 1934 1 830
7186 1.4667281994899846 7.9499154000517711 13.099739589119386 181 177 168 0.97017619565222024 9 1021 14 716 22 824 2 581
7190 6.3910418752536122 7.4852164991149133 11.682655889965877 191 188 179 0.74219325242899392 8 635 10 695 12 1590 15 1759 16 746 20 1893 2 666 5 1557
7199 9.5458525767480626 7.0426958805811131 12.924523897051698 184 180 171 0.72175584289551775 3 2510 10 1309 2 973 18 1882 6 2050 1 1883 15 3913 8 1232 4 4734 20 3237
7205 7.862991696161286 7.247537490728976 12.591891379861256 191 187 178 0.4465884965523475 6 1026 8 998 11 1564 19 1018 2 1026 15 1602 1 1488 10 1048 9 964 14 677 3 1242 16 1109 18 4262 21 1983 5 3301 13 4178 4 3184 20 3436
7209 7.9229310461509765 7.2980853812377706 12.157729964270018 212 208 201 0.6307046493419417 10 1087 2 1070 15 4028 8 570 9 1040 18 2385 13 4250 20 1798 4 1458 20 4645
7211 7.5325398971967221 7.358027607851982 12.065890204030007 194 191 182 0.55540994755550099 3 2673 9 1888 10 1100 2 1092 7 1020 11 1647 12 3556 19 2033 14 1622 17 2195 14 1921 16 696 6 1270 18 2419 1 1574 5 3343 21 2193 22 3474 20 1831 4 4831
7212 5.8949620728852246 7.5176977815125117 11.753057150503258 220 216 207 0.4314107758038358 1 975 3 2720 6 2383 20 3578 2 1127
7225 8.2742488921110411 7.096939393148153 13.894042914562343 221 218 211 0.77315518639612135 18 6169 2 1305 6 3342 8 1477 10 1583 4 5482
7226 7.2333331106837386 7.2722821452176927 13.135933711557572 175 171 162 0.84834866046797208 6 2860 8 1240 16 1724 20 5220 2 1335 12 5006 13 5568
7230 5.6374113784121924 7.4887687127537257 12.378585589675332 215 211 202 0.78843383431878789 1 1962 3 3381 6 2995 9 2319 16 1480 17 1865 18 5658 19 2607 2 1389 9 2702 11 4716 17 2173 5 5546 21 7260 13 5663 4 4818
7231 5.1169353713261918 7.6458030747135988 12.591208331291378 204 200 189 0.66613141527477704 3 2661 6 2319 7 1242 8 1326 11 3207 12 3541 14 1616 16 1485 17 1870 18 5669 19 2018 2 1400 9 1870 10 648 15 1683 5 4776 21 6318 13 4257 13 5666 4 4826 20 4652
7245 7.3529801355000632 7.0952850953274789 11.705983055488426 174 170 161 2.4782303609064478 8 1587 11 4710 14 1898 17 2566 18 6350 19 3037 2 1686 13 6864 1 2287
7247 5.4239707088588807 7.5521481992710644 12.476455793905819 213 209 198 0.5977789552610896 1 2308 7 1238 8 1595 10 1679 12 5822 14 1904 15 4650 16 1803 17 2580 18 6358 2 1697 19 3047 6 3516 3 4255 11 4719 9 2706 6 3001 9 2323 11 4182 5 5549 21 7265 13 6431 4 5587 20 5306
7248 7.2443841530457052 7.3412389698311333 12.093173337894404 222 219 210 0.58652787347115509 4 6087 6 3531 9 2715 11 4725 15 5089 17 2180 18 6969 19 3053 2 1705 7 1540 8 1926 3 3867 10 2010 14 2265 21 7842
7249 5.8690178599871974 7.5052529517662245 12.321195198928351 219 215 206 0.8129033397818286 3 3869 14 2266 17 2181 18 6369 19 3056 2 1706 9 3083 15 5090 5 5552 21 7280
7250 7.5102004318481574 7.3613655158395579 12.013111396595066 218 215 206 1.0529209439659926 6 3024 15 4051 19 2626 22 4179 2 1717 13 6462
7251 6.2307594305297753 7.4618140340930212 12.103910114808894 200 196 187 0.49505832216109913 18 5689 2 1723 5 5562 4 5614
7270 6.8089221837830722 7.300742557175008 12.744688121208068 181 177 167 0.59585207484936176 3 4181 7 1765 10 1626 14 2176 16 2053 17 2503 18 6858 2 1942 19 3712 9 2994 15 5479 1 2245 8 1266 6 2911 21 7727 13 7307 4 5535
7271 6.7843903151441838 7.2828325332982615 12.700160663307342 181 177 167 0.44634802619730285 14 2177 16 2054 17 2504 18 6859 19 3713 2 1943 13 7308
7277 5.972236409722715 7.5636320344223718 11.720571116398729 168 165 158 0.90343214832737018 6 4076 8 1987 9 2776 10 2073 11 5256 12 6375 18 7038 2 2079 21 7897
7278 5.972236409722691 7.5636320344223513 11.720571116398684 168 165 158 0.90343214832742069 6 4077 9 2775 10 2074 11 5257 12 6376 18 7037 2 2080 8 1988 21 7898
7295 7.7195009433699822 7.2849074460035927 12.473442488842013 193 189 180 0.8275081131808083 11 5549 19 3740 2 2302 18 7449 21 8265 20 6277
7300 5.6665125237637941 7.6018292957348725 11.688755989318789 226 223 216 0.70743934758774785 4 6586 22 5369 2 2404
7321 7.3078798811853787 7.1786245770357855 12.952569248495855 185 181 172 0.94030168234567901 7 2400 9 3758 11 5928 14 3113 15 5905 17 3180 18 7855 2 2581 5 6851
7322 7.3078798811853787 7.1786245770357855 12.952569248495855 185 181 172 0.94030168234567901 7 2399 9 3757 11 5927 14 3112 15 5904 17 3179 18 7856 2 2582 5 6850
7325 7.0702883585246914 7.3744726357714852 12.19771731759341 180 176 167 0.72928837371884381 8 2642 10 2708 11 6029 18 7955 2 2663 13 7913
7350 6.4223133051106558 7.4135135181459146 12.357900652415893 215 211 202 0.54360638504014991 6 5076 9 4064 10 2980 11 6368 14 3179 16 3024 17 3509 20 7100 2 2884 12 7437 15 6276 5 7335 13 8311
7352 6.3484457325723769 7.4664086995931589 11.408282311660042 229 228 223 0.51172689646112535 10 3017 11 6414 12 7478 14 3214 15 6322 20 7133 2 2928 21 9214
7388 6.3100727562567807 7.6901560500154824 10.829704701301686 215 212 205 1.4084684605652396 4 7989 5 8141 2 3364 6 5841 7 3409 8 3563 9 4708 10 3639 11 7123 14 3873 15 7051 16 3678 17 4184 19 5072 20 7968 12 8327 13 9156 3 5859
7389 6.8755682832984961 7.4682915315460914 11.915980491419138 213 210 203 1.2954500147019532 11 7135 12 8344 18 9137 20 7966 2 3375 21 10228
7390 7.6429362611162865 7.2831832462241044 12.256068315710392 159 156 146 0.55820606133911066 10 1074 11 4165 14 1602 15 4003 16 1465 17 1848 1 1951 2 1064 3 1324 18 4337 21 4493 5 3320 4 3226 20 4613
7410 5.4362774724274985 7.6525492354974975 11.261297406481582 183 176 166 0.7019520886757058 12 5164 23 2382 7 1312 14 1683 17 1935 15 4117
7428 -0.62810635685937088 8.3103188510229522 10.870619647294571 185 181 172 0.57026521769625349 22 3732 25 2234 23 3458
7445 -8.1210564793115569 8.7012973972039429 15.513547589542382 155 151 142 1.0513864182793766 22 3974 24 2843 25 3607 26 3208 28 1829 30 1766 23 3970 29 1110 27 1752
7451 -4.2334745815641917 8.5282045826803081 12.75615183826371 194 189 183 0.88815771644016728 22 4110 23 4050 24 3338
7455 -0.68762896510765081 8.2965268063395712 11.136297725533767 191 188 181 1.2740756437656471 22 4864 23 4154 25 3731 24 2982
7483 0.056381492332711315 8.1928779849546647 12.155368742130724 191 188 181 0.99417258072158021 7 1913 23 4747 2 2105 3 3942 15 5171 1 2711 8 2010 20 5924
7496 -14.664883519847143 7.4381265166466477 23.608815720158201 171 170 165 1.7147666225705034 22 5011 24 3242 23 5211
7517 -0.21186945868476584 8.1279892655494486 13.224301621579492 159 155 144 1.6407825546549357 2 2656 11 5560 19 3755 22 5794 6 4385 7 2131 12 6664 15 5533 21 8282 3 4240 23 5365 8 2248 20 6746
7527 -3.8793828851288739 8.4986400517884704 12.296676132668562 170 167 160 0.99120539889123171 22 5321 24 3821 23 5425 25 4669
7564 -1.6595733563960871 8.1442455909576026 15.082629191119837 179 176 169 1.2817833587858014 3 4946 5 7250 24 4631 10 2596 25 5544 1 3212
7569 -6.0040362822307767 8.7213252405245054 14.532402865696177 181 177 168 0.98988581112185614 22 5728 24 4214 23 5966
7570 -5.2872375088479071 8.4577119696189555 14.224444993800578 177 173 164 1.7634345602257966 22 6188 25 5550 26 4641 23 5968
7573 -3.170594731725461 8.3800983940619727 13.713120670391504 205 201 192 0.99815880888228348 22 6203 23 5980 24 4234 25 5087
7575 -5.0628162937952581 8.4821477695686802 13.554384692999712 209 202 192 0.80189920814088322 22 5758 23 5990 24 4237
7583 5.7880846525500287 7.5336728633294037 12.326699415433751 212 208 199 1.3311051248724972 12 7094 15 5999 23 6060 24 4286
7584 -4.5307457347407603 8.6991873699359417 12.576371255677319 222 218 209 1.7338471380584799 22 6277 24 4705 26 4668 30 2616 23 6074 25 4664
7603 5.6018783966769083 7.7039152323154942 10.36484351832592 152 149 140 1.2354032483076685 10 3075 12 7529 15 6375 18 8400 7 2821 8 2997 16 3103 17 3600 19 4448 23 6219 11 6474 13 8395 21 9269 24 4470 25 5346
7624 -9.4546319965509173 8.5225575112186824 20.232041353172068 185 181 172 0.92355121192523293 22 6100 24 4596 23 6469 26 5067
7626 -6.495672496637833 8.1961970385153506 19.994570543761448 188 184 175 2.5486659714978703 22 6104 24 4168 23 6472 30 3448
7633 -5.3901833096513769 8.2491310891955116 18.309075951446399 183 180 171 1.3355345511759054 22 6128 9 3703 19 3990 6 4980 10 2566 17 3419 3 4909 15 5844 21 8614 23 6489
7652 -3.5664060016142884 8.7963966254153974 14.144091988754102 205 201 192 0.029729671542969717 22 6200 23 6545
7654 0.34318440033312603 8.05069644664988 13.407715810678573 195 191 182 1.2887661145919438 2 2874 6 5066 7 2712 9 4052 15 6261 16 3017 3 5322 10 2967 11 6359 17 3497 12 7427 23 6551 5 7328 24 4668 21 9169 13 8296 1 3522 8 2886 22 6563 4 7277 20 7087
7660 4.4003094693279632 7.6675067676777564 12.648047175083628 203 196 188 1.5831970757436586 6 5086 7 2723 5 7343 21 9635 26 5213 3 5341 13 8318 30 3548 23 6571 1 3539 8 2908 20 7423 29 2183
7664 1.7489903209777642 7.9777738035781303 12.585984197245415 213 210 203 1.8441638915111596 2 3094 11 6715 14 3441 23 6584 3 5586 30 3547 4 7672 20 7449
7675 10.424794276802098 7.0348493596772244 11.287616969945741 154 151 144 1.2850783948502309 22 6630 24 5109 26 5282 25 5665 28 3547 23 6630 30 3632 29 2239 27 3336
7680 10.232875221292156 7.0995196237340208 10.625612212307237 210 203 193 1.7477305568267338 22 6370 26 5370 24 4858 28 3177 30 3245 23 6671 29 1908 27 3406
7736 -10.567457969059818 8.7739093000125532 20.297141166983909 209 205 194 1.3163266757496808 22 6757 24 5249 26 5742 28 3689 23 6946 30 3817 25 6184 27 3526
7753 -6.8361510024621621 8.6471661806169529 15.475007534722655 189 185 176 0.94059509612824177 22 6516 24 5013 25 5958 26 5536 28 3708 23 6983 30 3843 29 2468
7754 -7.2498555762460892 8.6422411844812306 15.391719174863145 191 187 178 1.5520606799291776 22 6771 24 5258 23 6984 26 5760 30 4006 29 2625 27 3700
7755 -4.7545601559497266 8.5107186890408411 14.311986736825595 178 174 165 1.2844838121266813 25 5964 26 5541 28 3712 30 3847 29 2473 27 3220 6 5356 15 6530 8 3109 10 3191 16 3210 17 3727 18 8598 19 4602 20 7386 21 9608 1 3725 2 3042 12 7841 11 6657
7758 -5.0215656229037497 8.4214392381634866 14.006973903777784 212 208 198 0.56865167439296083 22 6778 23 7005 24 5024
7770 -1.8297059304998398 8.3136841397266021 13.197710146016375 209 205 196 1.8666763610140249 23 7036 7 2733 28 3401 3 5576 15 6584 26 5187 22 6573 30 3522 24 4677 29 2156 1 3554 2 2906
7773 0.93672067930325187 8.0287060432556245 12.919820802810717 201 197 188 1.6226111168388337 9 4342 11 6707 2 3085 3 5573 6 5405 10 3238 14 3436 15 6581 16 3256 17 3770 18 8633 19 4635 7 2990 12 7885 26 5591 5 7699 21 9651 13 8675 23 7045 24 5063 25 6004 1 3773 8 3151 27 3584 4 7662 20 7666
7775 2.1642066365520298 7.9188351462596955 12.520139435008481 215 212 205 1.5891084210208115 23 7054 11 6713 6 5411 12 7891 26 5601 12 8106 30 3887 24 5084 4 7671 20 7672
7776 4.4247673604293087 7.675690729601131 12.365466873943136 214 210 201 1.308380225022687 3 5582 23 7056 12 7890 24 5088 25 6013 29 2188 20 7446
7778 0.759581582309795 8.1443156064866091 11.841087934395693 165 161 152 1.3183364425167372 11 6737 23 7065 29 2516
7789 1.310100528226017 8.1532437792681343 10.598668338884492 210 206 197 1.6908473604575591 16 3474 7 3063 17 3837 6 5481 23 7105 26 5355 28 3561 24 5168 30 3661 25 6088 29 2287
7792 -4.5756216099662188 8.6410506134826175 10.493162024652571 188 184 173 1.3948977150116568 23 7116 24 5157 25 6076 26 5648 30 3637 29 2266 27 3367
7805 -10.160417405732957 8.4323957056414791 22.931476092808939 226 225 221 1.516675952648614 22 6740 23 7230 24 5356 22 6868 26 5729 28 3858 30 4081 29 2700 25 6173 27 3682
7806 -9.235377336662415 8.4102710245893064 22.494714944986431 182 179 170 1.4798882944050105 22 6742 23 7232 24 5239 26 5731 28 3862 30 3981 25 6176 27 3684
7818 -4.1067674877535225 8.4338691129861392 13.644688894517675 201 197 186 1.7327530921535568 22 6899 24 5278 25 6214 26 5774 28 3897 30 4011 23 7274 29 2635 27 3711
7819 -3.8332483449359867 8.404238070288816 13.617689173247676 200 196 187 1.8480603722171001 22 6900 24 5279 25 6215 28 3898 23 7275
7821 -4.9963708449332698 8.5244593714974339 13.447027433181718 185 181 170 1.6594957224889995 22 6792 24 5281 25 6216 28 3901 30 3857 23 7285 29 2638
7853 -6.4937829554548978 8.7681466137586082 13.422061410915441 221 217 208 0.79655983030995026 23 7380 24 5371 25 6306
7877 -5.5585943957457289 8.5144925615943627 15.795777818872741 218 215 208 1.8312497535191201 22 6977 24 5427 25 6370 23 7458 26 5922 28 4050 30 4151 29 2779 27 3851
7890 -1.4672274274021539 8.1698762915170882 11.247958403441412 225 222 215 1.7945584567447015 22 7035 23 7496 28 4089 26 5971
7902 4.4637510701402361 7.6215818948714773 13.048159555396239 194 187 177 2.2373619902228747 15 7084 23 7563 26 6028
7911 6.118353201137098 7.5029388185881203 12.288803018569435 162 159 154 1.4527927333987993 17 3268 15 6001 19 4126 8 2647 10 2715 7 2477 3 5047 1 3319 23 5403 24 4294 12 7096 5 6939 13 7921 22 6275 23 6064 14 2606 2 2336 4 6943
8056 10.436390508663621 7.0173639501770806 12.106503765059591 162 158 149 0.67355476208871534 22 1043 23 487 24 380 25 558 26 805
8060 1.5029611552672921 8.0566143669263912 10.110868102063655 184 180 171 0.33655497879922364 23 1316 24 1048 25 1128
8064 -0.38477883392218659 8.3137819587538555 11.81926520201192 170 166 157 1.088945902160622 23 2351 24 1655 25 3039 30 871
